ply
format ascii 1.0
element vertex 698
property float x
property float y
property float z
property uchar red
property uchar green
property uchar blue
end_header
-6.9686442176863705 -5.1695633323821095 20.534316104061602 194 193 198
-7.019455442458405 -5.181122530994018 20.581003484619004 181 184 191
-6.98003226886183 -5.164416063939819 20.513343091001364 196 197 202
-6.97384372034271 -5.162833860130575 20.50682113306999 196 195 200
-6.945098074094716 -5.167998122794181 20.528595151650105 192 193 198
-7.001631563154409 -5.175839105531338 20.56009194580547 75 93 107
-6.973044103635939 -5.176202764622742 20.562033816610132 160 137 121
-6.950214677741285 -5.169654527127427 20.535624293817797 195 196 201
-7.011532098688498 -5.177920093388177 20.56860216157297 182 185 192
-7.002626144348006 -5.176049690237109 20.561032625061827 218 221 226
-6.970541430613958 -5.169115106074013 20.533128262645864 205 205 207
-6.943609967164694 -5.168458260603993 20.530980614104557 190 191 196
-7.015046896843581 -5.179077485609379 20.5734172818829 182 185 192
-7.013918934270617 -5.178579015353107 20.571463407303867 182 185 192
-7.013130019039786 -5.178429552949352 20.570860183465154 182 185 192
-6.955147995931775 -5.170305453473642 20.538485621899163 191 192 197
-7.011074405987837 -5.178027922197744 20.569326146278343 183 186 193
-6.946685776281319 -5.1680632542885325 20.529721886278264 192 193 198
-7.015689288924341 -5.179154813187831 20.574081355292318 184 187 194
-6.97322844485257 -5.1688615458660285 20.532552982985166 209 207 210
-7.016331720091797 -5.179232144022886 20.574745464563826 181 184 191
-6.975513696502644 -5.162232157806184 20.5057120514115 195 196 200
-6.9754663391025 -5.1624965325396595 20.506810073316796 196 197 202
-6.975981739707938 -5.170330924309924 20.538857180158296 207 205 208
-6.975842673598513 -5.170350247352589 20.53894034135665 207 205 208
-7.010363903783207 -5.177941904980255 20.569698354960163 183 186 193
-7.0024659172020405 -5.1759305649915115 20.561522037245403 95 108 117
-7.001849915394272 -5.175620838116304 20.560340207872986 111 126 133
-6.950029055586234 -5.169098830471765 20.534569698524237 194 195 200
-6.967977656686315 -5.169283138890451 20.53503760291321 196 195 200
-6.9781803674750025 -5.163011683626092 20.509423306898327 195 196 201
-7.014710311401645 -5.1784476608977785 20.572417663385647 184 187 194
-7.013167175239751 -5.178143881241791 20.57119023668044 181 184 193
-6.9798231754730375 -5.163722372872657 20.512693078571083 192 193 198
-6.9746156744694 -5.162519577874537 20.507723761290688 196 195 201
-6.974476874741884 -5.162538884300962 20.50780685278262 196 195 201
-6.973725334472546 -5.162250069342408 20.506714402399624 195 196 201
-6.968411584078612 -5.1663674899509315 20.5235542404986 208 206 209
-6.970190984082255 -5.168701536806287 20.533201288993475 205 205 207
-6.945397667390459 -5.167491753498826 20.528713115407335 190 191 196
-6.944313558532818 -5.167126183620883 20.527219425977666 191 192 197
-7.019669974012366 -5.180703540243798 20.58176037996202 180 183 190
-6.972741793675571 -5.16196076400869 20.505623039582108 195 196 201
-6.979926079287391 -5.171709503153545 20.545472282726237 203 202 207
-6.971113424190451 -5.168921265659823 20.534181439282797 208 206 209
-6.969700506278529 -5.168723398278699 20.533480691886847 204 204 206
-6.970587620475321 -5.166611336299031 20.524965563917352 207 207 209
-6.979430037319511 -5.162954163377159 20.510135713526644 194 195 200
-7.013289078094783 -5.178031694482024 20.571524411012604 181 184 191
-7.009923343538799 -5.1773268449498815 20.568761900270108 181 184 193
-6.9440961723259615 -5.168091419039831 20.53203012629187 190 191 196
-7.016606635230438 -5.178957087960557 20.575381642186017 181 184 191
-7.008493880864576 -5.1768378835822855 20.566851846276275 182 185 194
-7.002916250982973 -5.175540980992461 20.561589764793712 182 185 192
-6.980360239278903 -5.1715538418287 20.545618346505833 201 200 205
-6.968165851401961 -5.168582824207189 20.5337311331304 196 195 200
-6.982721615772226 -5.164557064232659 20.517160886968878 190 191 196
-6.975907778913564 -5.162016590791926 20.506854437138553 196 197 202
-6.944083673330478 -5.1674853739797895 20.52987176783851 189 190 195
-6.947203151538856 -5.167781414919216 20.53121150228836 190 191 196
-7.0178851031105 -5.179418968095062 20.577806538801212 180 183 190
-7.012832588277301 -5.177650432491098 20.57066608265906 179 182 191
-7.008808291822703 -5.177174177805114 20.568776056741367 183 186 193
-6.975275709893992 -5.162012177151774 20.507205590662974 195 196 201
-6.970193319654934 -5.168556741589778 20.53402392990678 207 205 208
-6.950015465706317 -5.168635606545891 20.534874085889747 193 194 199
-6.9449027051138685 -5.166718398303919 20.527205782403207 192 193 198
-6.944032713250973 -5.166703108096455 20.527250973258642 190 191 196
-7.019539871445482 -5.180134747275084 20.581098543238344 179 182 191
-7.012060175837444 -5.177665746700046 20.571103214130567 182 185 192
-6.974205259118175 -5.161810970138645 20.506749470643722 194 195 200
-6.973489365533669 -5.16165280586866 20.506108449179823 192 193 198
-6.94580911081232 -5.167062298368361 20.52879161707171 192 193 198
-7.011173983376475 -5.177223896719622 20.56946710329001 182 185 192
-6.97273504813499 -5.1614538281378035 20.505476822498323 195 196 201
-6.943608815061635 -5.167273794345028 20.530072806973454 189 190 195
-7.010029970588953 -5.177031467039965 20.56905006609217 180 183 192
-6.980431753661983 -5.163262318371857 20.51308307609523 193 194 199
-6.9611579302073645 -5.167636283538355 20.531378820565543 146 130 117
-6.9440178252326135 -5.166520419746073 20.52720565153522 190 191 196
-6.954321319704553 -5.16893022711178 20.536983562496772 193 194 199
-6.949183107253589 -5.168047088954604 20.53360692246433 193 194 199
-6.982754375277506 -5.1642262142677255 20.517477700975356 193 194 199
-7.003695394190904 -5.17527223782733 20.562508824687136 183 186 193
-6.9691297326168415 -5.168030158454183 20.533465123169865 204 203 208
-6.968865569999749 -5.1682325515067085 20.53466715529043 203 202 207
-6.94323465992971 -5.167002113220411 20.530200435830444 194 195 200
-7.0089839310824775 -5.1764705798649855 20.567904071671546 181 184 189
-6.968249251439252 -5.168013671313658 20.533950176486673 203 203 205
-6.9679015453112125 -5.168061913042471 20.534157851214253 200 199 204
-6.9692266112893355 -5.1693049432570195 20.539198267717193 196 197 201
-7.014943256089442 -5.177668714545212 20.572927262713666 180 183 192
-7.013465796594464 -5.177309454452899 20.571646474408148 180 182 194
-7.019899346477457 -5.1798784742457356 20.582258968110576 183 186 195
-6.978209395104688 -5.170244516875322 20.543439855489726 201 200 205
-6.968565990256854 -5.165508510964746 20.52408068383587 203 203 205
-6.97824899375799 -5.177771794344487 20.57431897086372 114 94 85
-6.971150462672334 -5.166135526825691 20.5268057227563 205 204 209
-6.950338840613704 -5.168122730598319 20.535409853370236 194 195 200
-6.979024578548661 -5.170433185796321 20.54447192971997 201 200 205
-6.944669121774426 -5.166011671799654 20.52712793030027 191 192 197
-6.969115259510271 -5.165763410939272 20.52583937019077 204 203 208
-6.950640926949407 -5.167942348703508 20.53518936287151 191 192 197
-6.944124702278135 -5.166387522601534 20.528965884075458 192 193 198
-7.008616790854982 -5.175891714922655 20.566937438187608 181 184 191
-6.971170169122692 -5.1659479477611185 20.526739354855135 203 202 207
-6.969205964900601 -5.167253002753029 20.53219817291987 204 203 208
-6.968650371094639 -5.167465826590199 20.53300340181863 202 201 206
-6.976408834912047 -5.169060811924835 20.53954517847564 201 200 205
-7.001906971039526 -5.1741418649758995 20.560175543989516 83 89 101
-6.943611342451678 -5.166577452122475 20.530299729370352 195 196 200
-7.018416934778016 -5.1788116312337475 20.579201618210824 183 186 195
-6.969878554796122 -5.165350284786964 20.524730856683387 201 200 205
-6.969057122134956 -5.165070709143027 20.523678052078758 203 202 207
-6.9682781223779955 -5.167636954028521 20.53425630018736 201 200 205
-7.015052864051184 -5.177020414120439 20.57210799037112 180 183 192
-7.011445380083479 -5.176485978350701 20.5699671504999 180 183 192
-6.959174385444021 -5.166014780525346 20.527896741355434 116 101 94
-6.942992222478469 -5.16631293321928 20.529571448235203 196 195 200
-7.010779055810029 -5.176622913402228 20.570816691716256 179 181 193
-7.004084391724899 -5.174566999341393 20.562517072654213 186 189 196
-7.000626075137924 -5.173706858132473 20.559199536689384 177 180 189
-6.949960511257709 -5.167362704416223 20.534402065832978 190 191 196
-6.974916954001184 -5.160614200903857 20.506302666876522 196 197 202
-6.979501870662049 -5.169947742730202 20.544496425576988 200 199 204
-6.968720838762731 -5.168420452231591 20.538656560757783 118 105 99
-6.944725048552449 -5.165538948042898 20.52739066881792 194 195 200
-6.9812868547771805 -5.170641459122282 20.547694299078838 201 200 205
-6.977631753877214 -5.176292971182552 20.571229581960186 92 77 72
-6.954085382746712 -5.168032500933393 20.537716736015014 192 193 198
-6.94557281891186 -5.165722501793804 20.528400740023187 193 194 199
-6.94421544175706 -5.165909961401265 20.529207995525223 195 196 200
-7.012992568624914 -5.176645032635058 20.57202066988227 182 185 194
-7.01476283340749 -5.17699385952913 20.573699422785904 180 183 190
-6.969767256141698 -5.1670575965644945 20.533689992161936 201 200 205
-7.015119107044057 -5.176774473737231 20.57286948023193 177 179 191
-7.011822511438231 -5.176060088429721 20.570065017276004 181 184 191
-7.012207569916143 -5.176785276714582 20.573067000134515 180 183 192
-6.97100186743489 -5.167098167294757 20.534010147200572 201 200 205
-7.002888566171025 -5.1738884863602905 20.561420879892214 187 190 199
-6.968996438111616 -5.165007718498069 20.525553809472235 200 199 204
-6.969241482888542 -5.168329066379697 20.539335700626662 124 111 105
-7.001470802413834 -5.173780739284182 20.561182509316716 190 194 203
-6.981125144909015 -5.170386376647767 20.547709037974304 202 201 206
-6.943276912031502 -5.166066180429504 20.530767586550255 197 196 201
-6.968501224006293 -5.1671841022441605 20.534865201274215 213 208 212
-6.949047367352542 -5.166646829040923 20.533142323560753 192 193 198
-7.010323223552945 -5.1758246697971 20.569834148568127 181 184 191
-7.009299933674016 -5.175538602585572 20.568756948218482 181 184 191
-6.97910635373355 -5.177285691713126 20.5765669217942 144 126 114
-6.953867907134292 -5.167220198008216 20.536042009385387 191 192 197
-7.013093558137461 -5.176167539039163 20.571822073406206 180 183 192
-6.978483946955271 -5.1760605403374775 20.572120429149347 132 117 110
-6.94797893288784 -5.166048020567041 20.53157058875924 190 191 196
-6.967831367142667 -5.16674157288754 20.534112017869308 111 100 98
-6.95356756897019 -5.1672916173133725 20.536791519959916 193 194 199
-6.969818152890391 -5.1647357537212155 20.526010750144756 200 199 204
-7.012352083680593 -5.1761321701891525 20.57222689159222 183 186 195
-7.011458881357532 -5.175997346250104 20.571686352913343 182 185 194
-7.003327647719334 -5.173759728689358 20.56257166001815 184 189 195
-7.001934614011711 -5.173040033032471 20.55970399605768 166 170 179
-6.9695974615327625 -5.164204287600745 20.523987325999187 199 198 203
-6.968728817787546 -5.16432486954458 20.524506550205864 199 198 203
-6.961249080241606 -5.1661358996531135 20.53218538703417 153 134 119
-6.962007856768229 -5.166804692002887 20.5349455489337 157 138 123
-6.963366155451384 -5.1680425233159175 20.539965098856797 157 138 123
-6.956093214105906 -5.167759235426701 20.538945095581024 191 192 197
-6.943014658278101 -5.165429078189959 20.52973231328143 197 198 202
-7.001246946187626 -5.172830470954305 20.55902724832682 103 107 118
-6.962101082782246 -5.166229588237961 20.532734288756327 159 142 126
-6.960486754988816 -5.165421594951739 20.52941457162001 153 134 119
-6.945551694593407 -5.1651679986388945 20.528682208680067 194 195 200
-6.980622977115046 -5.169566096977251 20.546186444425917 201 200 205
-6.971149655388773 -5.164805905283298 20.52671795805591 198 197 202
-6.969740926880036 -5.168234759212417 20.540892922589887 90 75 72
-6.965049782814242 -5.167974888980407 20.540004803601096 159 140 125
-6.981634511788747 -5.166917094234224 20.535435830179264 196 195 200
-6.9693639034156485 -5.16655594307094 20.53419977550816 200 199 204
-6.967136150717076 -5.1690663120579226 20.544579311560362 156 138 124
-6.9775786262705255 -5.175480141869392 20.57089020661662 142 123 109
-6.943750578016638 -5.165535715893111 20.53078208194081 197 196 201
-6.978698513948267 -5.175796459578902 20.572357950098503 138 121 111
-6.969128673402164 -5.1633540994628735 20.521446762642135 198 197 202
-6.977446581215126 -5.168225376156876 20.541580242208248 197 196 201
-6.949095891873672 -5.166082586775636 20.533382475138655 191 192 197
-7.013873460990604 -5.1758986285174045 20.5727418048785 180 182 194
-7.012388466757211 -5.175447873127629 20.571438051153077 182 185 194
-6.961193500024774 -5.165162652834756 20.53037304686218 170 151 136
-6.944365747405411 -5.164562970149528 20.528600736027137 193 194 198
-6.978726827211322 -5.17528315891277 20.57219080100227 154 135 121
-6.945704575212903 -5.1645894422409775 20.528860148185355 194 195 200
-7.012173380418355 -5.175123102364429 20.57089701982195 182 185 192
-6.9693389277090425 -5.1633324374147325 20.52331217912229 197 196 201
-6.953963660231683 -5.166372054980911 20.536172535900523 189 190 195
-6.953789649129244 -5.166396121130341 20.536276191948506 190 191 196
-6.953511225385253 -5.166434625787264 20.536442036841613 191 192 197
-6.979658118520838 -5.16611759471723 20.53474300370478 195 196 201
-6.969948123028806 -5.163595168235568 20.524478146087947 199 198 203
-6.977666118734013 -5.174955878339656 20.571121688513667 157 134 120
-6.955727078983028 -5.166855594174789 20.53832066422699 190 191 196
-6.954746146623756 -5.166475479984464 20.53676346549756 189 190 195
-6.943205975947867 -5.164584517889939 20.5292497747548 196 195 200
-6.959348405073791 -5.164109731419043 20.527110306956754 110 87 73
-7.013659638021893 -5.175555272256281 20.573195317129287 182 184 196
-6.969856957980235 -5.165837427583502 20.5341465951444 197 196 201
-6.959031716011297 -5.164107394372447 20.527285619906124 139 120 106
-7.014144420887667 -5.175577656291539 20.5733662400968 183 186 195
-7.016090647062625 -5.1760383575230975 20.575415977861326 179 182 191
-7.015091021226806 -5.175781870071656 20.574462710880784 183 186 195
-7.012362919262615 -5.174864936894282 20.570714042625948 181 183 195
-6.975987895984562 -5.159206496235651 20.50701872409001 191 192 197
-6.9720002952049 -5.164157210477171 20.52748062358257 197 198 202
-6.948706489150511 -5.1653211383611275 20.53281325178629 192 193 198
-6.97745080902536 -5.159472171975229 20.508268543543174 192 193 198
-7.011859758279714 -5.175238653852274 20.572543551832453 181 184 193
-7.0105930970102515 -5.174760004985914 20.57067353158565 184 187 196
-6.978798406097399 -5.16014729514506 20.511131030009945 193 194 199
-6.974926821148543 -5.1595193875701915 20.508696823041216 192 193 198
-6.97391129118576 -5.159145300575043 20.50716529768293 195 196 201
-7.001462058977827 -5.172357141560178 20.56107085951068 93 109 108
-6.969724152877208 -5.169647563744486 20.550591238906065 143 121 108
-7.00463510124816 -5.173164373028027 20.564533126228497 187 190 199
-6.97304906597903 -5.158915218830533 20.506584543064882 195 196 201
-6.945980523333128 -5.1640894168096425 20.52856039529491 193 194 199
-7.017976882711677 -5.176582009772853 20.578526145459133 180 183 192
-7.01828145596281 -5.176935858027215 20.579898611421253 181 183 195
-6.943918238854661 -5.163812985425138 20.52763504241219 196 197 201
-6.978321791186407 -5.16325948231601 20.52468669707065 195 196 201
-6.979924418146525 -5.165237505155 20.532775765726466 193 194 199
-6.979507501436077 -5.165295479035342 20.533025440524938 192 193 198
-6.980686457872162 -5.160562660435067 20.513615820262654 192 193 198
-6.974967996763191 -5.1587674791800415 20.506464071949953 193 194 199
-6.979292895281072 -5.174997758789012 20.57322541485301 163 143 132
-6.947769849476096 -5.164611840623544 20.53113602078975 190 191 196
-6.94658106755248 -5.164125443302358 20.529231845936902 190 191 196
-7.010745892849695 -5.17459709093756 20.57097522129405 182 185 194
-7.00022573768087 -5.171520609327695 20.558516431677916 80 95 92
-6.982495069184403 -5.161554319211408 20.517872962261368 190 191 196
-7.013804036894548 -5.174902170147926 20.572355034675976 182 185 194
-7.004698394495062 -5.172800960706499 20.563825333296364 184 187 194
-6.978018525105457 -5.167307699025301 20.541857854615564 198 197 202
-7.013170682163069 -5.174898023558823 20.572708671615466 183 186 195
-7.011860269105088 -5.174821541108636 20.57241919699034 184 187 196
-6.973544015642136 -5.158658672815719 20.50666510969767 192 193 198
-6.967109456316421 -5.162142541593658 20.52109020653658 195 194 200
-7.01230841267984 -5.174712577958398 20.572135744982766 184 187 196
-7.010730672207366 -5.174413881800254 20.570929258050867 185 188 197
-6.982854118373613 -5.161227104597679 20.51757546018227 191 191 199
-6.958934007806795 -5.16360655998658 20.52805802881191 149 130 123
-6.969339332175029 -5.165484289415105 20.535630546636142 194 195 200
-7.002070945475478 -5.171760157659589 20.5609881174796 61 76 73
-7.002163963161939 -5.172006377055865 20.562008595048958 63 79 78
-6.956052331566464 -5.166233495446728 20.539385410307702 187 188 193
-6.944664330254366 -5.1640636204016195 20.530708849239694 192 192 200
-7.004594681193772 -5.172398607226962 20.563763817373275 186 189 198
-7.00283184762583 -5.171607680408433 20.560517138639238 197 200 207
-6.954838352910929 -5.165717120035319 20.53735532358502 188 189 194
-6.9822228098108425 -5.1608260263951005 20.516814262173234 190 191 196
-6.958801196716422 -5.163833424715589 20.529625994361027 96 85 79
-6.95437579352263 -5.165219220803236 20.535475905005985 190 191 196
-6.953540586841981 -5.1653347269940175 20.53597350177637 192 193 198
-6.947933928945874 -5.164170239823704 20.531347968905095 194 195 200
-6.953745658496199 -5.165260155649285 20.535837746502388 191 192 197
-6.952979858692941 -5.165230515657144 20.535821171400578 192 193 198
-7.003838657720547 -5.171936634980803 20.562485620951232 185 188 195
-6.967380775664304 -5.161596733608716 20.520777949350382 196 195 201
-6.961950001037692 -5.166611628916411 20.541630926931237 146 132 121
-6.973241087003574 -5.158629060593882 20.508683825944267 191 192 197
-6.970848761841565 -5.162536979497849 20.524962955937312 192 195 200
-7.003823463257817 -5.171753510677479 20.562439709681154 189 189 197
-6.975614118322741 -5.158328880969837 20.507832422050306 190 191 196
-6.973620465294041 -5.158134023544606 20.507332160187897 190 191 196
-6.958398484748029 -5.163080088374611 20.528200570553427 145 134 128
-6.979161945196889 -5.158863018463115 20.5104190057422 189 190 195
-6.977083042681861 -5.1583791730134 20.50845411208057 190 190 198
-6.978060391065855 -5.15871238709527 20.509995166214654 190 190 198
-6.979526002688665 -5.163680372777307 20.530416745761258 191 192 197
-6.95880156867871 -5.162551969622026 20.526265030585208 150 132 118
-6.952539334458755 -5.164707063962239 20.535349955404325 191 192 197
-6.9436658521263315 -5.162571077746582 20.526849272381323 192 193 198
-6.943546498647371 -5.162980346016506 20.528461564021537 193 194 199
-7.004825020243464 -5.17190066200304 20.563922246481827 187 190 199
-6.9765550749039935 -5.158360252992673 20.508743089097514 191 191 199
-6.979854284733132 -5.164621234088516 20.534495613031968 193 194 199
-6.979068804491502 -5.158995160608026 20.511504227613838 190 191 196
-6.95439700203636 -5.164751057556477 20.53575940198865 189 190 195
-6.947502619234629 -5.163629244081925 20.53142830360689 191 192 197
-6.945473192844442 -5.162879418890818 20.528357605607795 190 191 196
-7.0027764768871466 -5.1710570524507515 20.56081967198988 57 72 93
-6.9834317036275975 -5.160798092530162 20.518986902159604 190 190 198
-6.9742134352941685 -5.158078286057152 20.507978472597166 189 190 195
-6.948319593241509 -5.163863214945701 20.532470762080425 190 191 196
-6.942714893481829 -5.1626991331203 20.527846288918333 192 193 198
-6.95661572427521 -5.165640961766498 20.53976455466018 187 188 193
-6.948823335130806 -5.1638695914630155 20.532754836743646 191 192 197
-6.979963841932513 -5.1649046290537415 20.536381826798554 193 194 199
-6.969521412777654 -5.164412129588005 20.534650466237856 192 193 198
-6.982134538176919 -5.160020047454235 20.516496011841987 187 187 195
-6.9760863617967255 -5.160481314095934 20.518451622836587 191 192 197
-6.968925960834913 -5.164312845991537 20.534519315015586 192 193 198
-6.949896917326782 -5.164233403084033 20.53468777154387 189 190 195
-6.9481104261248605 -5.163449713787301 20.531471087842657 190 191 196
-6.9529414996749015 -5.164159548800776 20.534403941288886 190 191 196
-6.9656829750796705 -5.160452542999529 20.519268217308934 197 198 203
-6.959963834908435 -5.162275985918814 20.52696476292011 124 115 108
-6.957502009022554 -5.161843920614018 20.525222971499783 128 116 104
-6.9604243468350555 -5.165306154395518 20.539540931349364 136 126 116
-6.9522652253374515 -5.1639327195355005 20.534279777646926 188 189 194
-6.9647684277065105 -5.160440816911422 20.519773805873157 195 196 201
-7.000935421283515 -5.169858035314647 20.557931658309304 84 96 110
-6.960352308064173 -5.1622950748817305 20.52774887713161 93 88 85
-7.01089735604531 -5.173101365127531 20.57118771019527 183 186 195
-6.968732188636948 -5.1638013639661295 20.533914019189357 193 194 199
-6.968684810745541 -5.1642015914998325 20.535487372985774 193 194 199
-6.967897770088337 -5.163917100216727 20.534412663324698 191 192 196
-6.955165663050764 -5.164255536152962 20.536181757013388 188 189 194
-6.97831046017224 -5.15816350579862 20.510558409221908 185 188 195
-6.975827867570022 -5.1574782617810335 20.507765318097725 188 188 196
-6.975685314553829 -5.157451907518861 20.507837038278385 187 190 197
-6.961439166018863 -5.16111068745533 20.523250659433295 160 141 127
-6.9623513810905795 -5.162652758704638 20.52972664196908 141 123 111
-6.951158056582682 -5.163428649454565 20.533189753844088 189 190 195
-6.975959902791295 -5.160337898007019 20.519907267164594 189 190 195
-6.976213254598874 -5.160954005588911 20.52237099674898 190 191 196
-6.9660136080964925 -5.1597795203798285 20.51789132263706 193 194 199
-6.979397979948236 -5.158266874198614 20.511408924645046 188 189 194
-6.976359061194931 -5.157523446809582 20.508476019401424 187 187 195
-6.974684253139313 -5.1572411791662285 20.50733944682658 188 189 194
-6.973517295597196 -5.157145871828544 20.506968591597754 189 189 197
-6.9778291120408396 -5.163779441574679 20.53425107217847 189 190 195
-6.965350444055022 -5.15996079675517 20.518746742307464 195 196 201
-6.965162785335148 -5.160108971577164 20.51945631012133 194 195 200
-6.957065004811707 -5.1612310714939085 20.524291175340462 131 115 100
-6.974055945838756 -5.157282355708243 20.50770210822038 188 188 196
-6.956740216738118 -5.164580091027462 20.538388037701637 183 184 189
-6.970565531743987 -5.160948651977263 20.5230947993978 190 191 196
-6.961194058233824 -5.160566790253621 20.521799717536506 150 130 121
-6.964596212032485 -5.1601844477564525 20.52022666814878 192 193 198
-6.962875801789372 -5.162742387259984 20.53088924808952 148 126 113
-6.959724022281814 -5.161497124396012 20.52587413863449 51 55 67
-6.958660430203237 -5.161522251160056 20.525911270959195 166 144 130
-6.9438198529202255 -5.16171202558111 20.527376501433473 194 195 200
-6.972218231163728 -5.161489641823113 20.525751387841687 188 189 194
-6.960327623047562 -5.1602906869888665 20.52120613919734 133 116 100
-6.956350904688667 -5.161098954998405 20.524649087205876 141 124 116
-6.945193339785096 -5.161733614889204 20.52761501956476 188 189 194
-6.982746725713171 -5.15958612957022 20.517886436819282 184 187 196
-6.976997889157076 -5.163101326728454 20.53252218785187 188 189 194
-6.9514905151403665 -5.16275542840578 20.53181285487796 188 189 194
-6.950776453762303 -5.163065545843116 20.533294801195254 189 190 195
-6.964475497671141 -5.161258568643733 20.5255826013842 218 217 215
-7.000684852156167 -5.167568257376739 20.550834878167258 185 188 197
-6.998367972786327 -5.166856123721115 20.547926296588052 87 95 98
-6.977045179166619 -5.163485603764498 20.53447238880326 188 189 194
-6.961872670697147 -5.162224087834901 20.529737632406654 143 129 118
-6.948411217588707 -5.162662609164071 20.531938301489355 190 191 196
-6.974301806142915 -5.162000866673058 20.528721933056893 187 187 195
-6.978393581273913 -5.157594662840451 20.510776118415816 185 188 197
-6.9771816295876 -5.160870097812921 20.52422917538639 187 187 195
-6.978087312723485 -5.16198785545294 20.52903155150445 189 189 197
-6.958797163419762 -5.161176796415349 20.526166198338544 192 174 164
-6.9773007541546495 -5.157139024462165 20.509263037104944 185 188 195
-6.977944593498761 -5.161961470894378 20.529103340970956 188 191 198
-6.9663944382909975 -5.161624067679011 20.528039602175017 195 196 201
-6.955525341882554 -5.160295741104161 20.522754495299562 57 48 53
-6.955844716715812 -5.160631156082421 20.5242311465756 57 56 70
-6.9777996729050455 -5.162845264965693 20.53286630235442 188 188 196
-6.966222183170263 -5.160828464487993 20.524916372187306 192 193 198
-6.960256713518038 -5.161262074280928 20.52693586143427 54 60 74
-6.950378287899997 -5.16262876522799 20.53282565411519 188 189 194
-7.001517077360868 -5.167523131362349 20.551789057058947 183 186 195
-6.977465840315809 -5.162921583326926 20.533637389002887 189 190 195
-6.976657293887787 -5.162517774214567 20.53197713282647 189 190 195
-6.976783575547074 -5.162758293981879 20.532973651857528 188 189 194
-6.9524239365054346 -5.162389042071548 20.53205246897238 190 191 196
-7.014762028439889 -5.173112452613651 20.574901808089006 183 186 193
-6.976570579064669 -5.15693373226271 20.50904850435847 184 187 196
-7.012958993921531 -5.173148588739338 20.575357811467242 181 183 195
-6.9755830074915 -5.156599031718564 20.507945500354165 186 189 198
-6.976138203122466 -5.159356210598616 20.519388467247815 187 187 195
-6.95500002138786 -5.1627893592097625 20.5342855603075 189 190 195
-6.949886867755999 -5.162208076985472 20.531980293702706 188 189 194
-7.011049137443517 -5.172194559038336 20.57170431688428 180 182 194
-6.960950350622378 -5.160129233925058 20.523104273253782 174 155 140
-6.9668144782717825 -5.159088378921317 20.519100668034632 193 194 199
-6.965959345338847 -5.158949412910549 20.518541659053035 189 190 195
-6.979005713803415 -5.1571800938534125 20.5111770760814 185 188 197
-6.969742309774673 -5.159755842168382 20.5220774509446 188 188 196
-6.960740031323039 -5.159580592948973 20.521632596257973 154 140 129
-6.956443621438382 -5.159918049107515 20.523126847683574 157 138 123
-6.985160533642627 -5.159900294781864 20.522344877082798 195 204 213
-6.950351628685999 -5.161866641894433 20.531621994004777 189 190 195
-6.9500036578258735 -5.161914728260434 20.531829251136813 187 188 193
-6.95968337406216 -5.160407289670015 20.525446641613513 58 61 78
-6.950278386399882 -5.161965977708339 20.53212455674363 188 189 194
-6.9465635751423465 -5.161571211372572 20.530654194426948 193 194 199
-7.0141105804081425 -5.172616907513169 20.57455415342987 182 184 196
-6.959230507543382 -5.159604929105652 20.522479287199193 49 47 52
-6.9559824619282775 -5.163024003658052 20.536664772952737 189 190 195
-6.942821620460166 -5.160965749365043 20.528575595650018 199 198 204
-6.977093462175765 -5.160063873062873 20.52391087211199 186 186 194
-6.949640806541258 -5.161915469830456 20.532463538508424 188 189 194
-6.975841112149334 -5.156312708873656 20.508710307481095 184 187 196
-6.948468356092719 -5.161773707869732 20.532078072519656 190 191 196
-6.978263096094585 -5.156702443233963 20.510455863028657 183 186 195
-6.976622751007248 -5.156415395043227 20.509298383459733 184 187 196
-6.974392728035906 -5.156210363079885 20.50849433622122 186 186 194
-6.975286421748219 -5.157856467990699 20.515312862929612 184 187 196
-6.972861938436527 -5.160589156499869 20.52698764223167 184 187 196
-6.9593178073422175 -5.163362613229788 20.53889229111169 159 143 128
-6.958232206029666 -5.162997205362737 20.537397296799508 150 133 117
-6.9473378731455915 -5.16127627092547 20.5305706167639 193 194 199
-6.943633090859359 -5.160108160668252 20.525886622805057 197 196 201
-6.980123849147811 -5.15721351001762 20.51298405265117 183 186 195
-6.944046834525943 -5.160140154941473 20.52609893282517 196 195 200
-6.967044757176764 -5.158726850005876 20.51973108889153 187 188 193
-6.9563679579781414 -5.159555814460542 20.523494750687064 154 135 121
-6.943576029797266 -5.160280980697056 20.52696262523937 198 197 203
-7.016063096688043 -5.172842121745314 20.576966586567025 178 180 192
-6.971848028805513 -5.159953408471318 20.524812741904864 184 187 196
-6.95950721467435 -5.160105146046732 20.525888267110968 49 56 75
-6.942742133856991 -5.1608645572332605 20.529583750973327 200 200 202
-6.959425913774564 -5.158267638295392 20.518433135496615 171 150 129
-6.945383334339702 -5.160589125672502 20.5284708584102 196 195 200
-6.943255378736268 -5.160232865114949 20.527126281415015 199 198 203
-6.983794153736978 -5.1587158976864025 20.519770920033338 182 182 192
-6.942888652266047 -5.160629915898149 20.528872256833328 203 203 205
-6.946057170834437 -5.160661094403554 20.52911218606338 195 196 201
-6.942795514583388 -5.160203958016127 20.52737274785217 202 201 206
-7.017419667263221 -5.173122857430301 20.578728814359252 181 183 195
-7.0115916606280315 -5.171724254281738 20.573132759415074 181 184 193
-6.985103736416056 -5.159214958520062 20.522173149427047 96 118 115
-6.973309466703715 -5.155565779675373 20.507352937634437 182 185 194
-6.96647014551507 -5.1585755891448875 20.520006372041177 189 190 195
-6.949550530679534 -5.161812666869698 20.53391062315543 190 191 196
-6.948361433953184 -5.1613264707948705 20.53200596750783 192 193 198
-6.973120319371396 -5.155938780955333 20.50899510639621 182 185 194
-6.974996778319817 -5.157738640920443 20.51643381947084 184 187 196
-6.968385259403369 -5.1587789254010925 20.52098850108618 187 187 197
-6.964943152105546 -5.157968535323965 20.517694934824238 188 189 194
-6.956928847606236 -5.162550011873851 20.536994620386736 203 197 197
-6.947443494369999 -5.160981274469659 20.530857929797474 193 194 199
-6.950542454054438 -5.160886528419345 20.530666226608098 189 190 195
-6.966291553550224 -5.158247267812929 20.519447334346356 186 186 194
-6.9587721444422215 -5.163276830276935 20.540598992034496 167 150 134
-6.951056984690638 -5.160858410359765 20.530805014477707 188 189 194
-6.944199836922517 -5.159868303650516 20.52692790167872 198 197 202
-6.978590081450031 -5.156235133776806 20.51100027644696 184 187 194
-6.956431355440524 -5.159174317158278 20.523779690691473 146 127 112
-6.9530425946896495 -5.161052809034848 20.53174862916974 188 189 194
-6.943360931047685 -5.159937908225159 20.52741351629964 202 201 206
-6.954123786592162 -5.161372288446657 20.533231450966476 190 191 196
-6.945117110504045 -5.16004193100104 20.527896364934204 199 198 203
-6.958914007514439 -5.162860684087888 20.539402081173716 152 130 116
-6.945829445030791 -5.160154750344967 20.52852828584364 196 195 200
-6.9431149753303725 -5.16039412608857 20.529671405919 203 203 205
-6.973745641893497 -5.155436264575085 20.508497393301504 183 186 195
-6.973647231589983 -5.156737569587137 20.51390725587631 182 185 194
-6.966412321537136 -5.158134994445817 20.519779641098854 188 188 196
-6.964753817221817 -5.157925830758479 20.519214414666557 188 189 194
-6.955891115538935 -5.159018120781634 20.524033917684704 54 56 68
-6.957664023066989 -5.162637160584334 20.53903545883262 139 134 130
-6.948932353580292 -5.161267672419856 20.533531691271875 196 196 204
-6.947847739902621 -5.160767117588219 20.531564947656577 194 193 198
-6.9874649852213615 -5.159893017813292 20.526900115289383 119 134 129
-6.9761772272315135 -5.155656326012673 20.509626114898595 182 185 194
-6.969430996388647 -5.156851112835236 20.514736069658127 183 186 193
-6.965445430838887 -5.157919159072197 20.519260076792367 187 188 193
-6.94974940382025 -5.16136613273906 20.534101761040507 195 196 201
-7.013956266454709 -5.171446818309746 20.574162863392175 181 183 195
-7.000913510434526 -5.165738968742916 20.55090348127925 179 182 189
-6.957879058284224 -5.158393119014297 20.52175060164581 47 53 69
-7.011587429948069 -5.171089391515188 20.572816827094417 183 186 195
-6.950272294176529 -5.160293563444938 20.530080166990874 191 192 197
-6.98407915675985 -5.158161890323288 20.520313746676536 106 118 118
-6.9792732740309456 -5.156117508487293 20.512010945838668 179 182 191
-6.978766286984311 -5.156065905053362 20.51171732221185 180 183 192
-6.975784230567089 -5.155572415552865 20.509820534472187 184 187 196
-6.979985724698306 -5.156229843261468 20.5126407549414 180 183 190
-7.012528115503118 -5.171337885478305 20.574365656279696 181 183 195
-6.975025955352913 -5.155327953087092 20.509177331137177 178 181 190
-6.957280461341951 -5.158941529611689 20.524665841020905 159 138 121
-6.973070664812988 -5.155173996181527 20.50866766124457 184 187 196
-6.953435973074081 -5.1608369481156116 20.532894057944347 189 190 195
-6.958086404390352 -5.1584800989260415 20.52308759195117 57 60 69
-6.963646739494297 -5.155739642785215 20.511667244944885 188 188 196
-6.956184568000292 -5.158439713151406 20.523138921365046 153 136 120
-6.950861979641572 -5.160463119436964 20.53166240897705 188 189 194
-7.002774634466851 -5.1614878507210555 20.534624851455227 178 180 192
-7.01188430084381 -5.170464132293438 20.571463434896792 179 181 193
-6.949810616574181 -5.16051598670257 20.532261553200083 195 196 201
-6.948488151032377 -5.160427927133715 20.53210423025535 198 197 202
-6.995163063586987 -5.162547004313547 20.539635340337867 109 117 119
-6.9500944353565215 -5.160549459670724 20.53310834769715 195 196 201
-6.974840308628955 -5.157345593496143 20.519259467799365 182 185 194
-6.977666483037299 -5.155103267233721 20.510057490344632 179 182 191
-6.977111372498857 -5.15518046461943 20.510390256114338 179 182 191
-6.975471090695692 -5.154893499221552 20.509232764121435 182 185 194
-6.974859187513062 -5.1547210861632164 20.50852930700472 181 184 193
-7.001945089629162 -5.165644221058741 20.553164825671907 177 177 185
-6.975953045222639 -5.154780313133704 20.508930237262216 181 184 193
-6.973134112707721 -5.154792609246898 20.508951798303514 179 182 191
-6.957575706365619 -5.155393585625699 20.511963667100133 57 47 46
-6.95679775999502 -5.158331924019813 20.524192961764733 155 132 118
-6.953626837331109 -5.158120472999845 20.523472273176914 158 136 122
-6.974261569053725 -5.157680589631388 20.521109150839514 185 188 197
-6.942122900986509 -5.159135521210873 20.528296692414283 197 196 201
-6.9988204902374695 -5.16417619223518 20.547487615476218 113 116 125
-6.968566071883277 -5.1554566749466355 20.51225648673212 185 188 197
-6.980204896523934 -5.15573126677947 20.513236194880186 74 80 96
-6.969269416946297 -5.1571153144619375 20.519313615029112 182 185 194
-6.958969317960936 -5.1573778636328225 20.520716041771376 189 172 156
-7.006449266302253 -5.162242780257689 20.539645107322237 178 182 193
-6.963208535608102 -5.154820854400837 20.510085304060528 187 187 195
-6.947237997479815 -5.159455482223613 20.529961942749786 199 198 203
-6.973129902890634 -5.156364805670314 20.516377901889893 181 184 193
-6.975558373500557 -5.157223197572303 20.52025033611507 183 186 195
-6.968712460962164 -5.156885710386027 20.518994505175254 182 185 194
-6.963170976716065 -5.155337445025598 20.512678065607265 189 189 197
-6.962489329314362 -5.155039326458149 20.51154362676402 186 186 194
-6.957376404265595 -5.157671055927754 20.522682330359444 158 133 113
-6.950845345117385 -5.159089211337952 20.528717129223654 190 191 196
-6.984681350503667 -5.157726120172341 20.52214307416733 126 142 139
-6.9577206121309585 -5.157712577485946 20.52293579468417 204 186 176
-6.949525513183892 -5.159740243490232 20.5316299491755 197 198 203
-6.943587866353731 -5.15836608909471 20.526135732220975 198 197 202
-6.942076917453109 -5.158561317172832 20.527159899260052 198 197 202
-6.942166280026247 -5.158941480197987 20.528648043949527 198 197 202
-6.986029692377319 -5.158265989719239 20.524536501027274 104 124 122
-6.962895022643065 -5.1569496704069815 20.519832016402585 186 187 192
-6.953323816837466 -5.155823786800821 20.51544768233186 194 180 169
-6.944563723390248 -5.158699722571697 20.52767998500972 197 196 201
-6.944424531318289 -5.158718935040002 20.52776283157529 198 197 202
-6.942818713502114 -5.158290802763645 20.52610783295669 198 197 202
-6.96541537396478 -5.179340346439063 20.61284684433984 209 207 210
-6.974575683187186 -5.154387912379486 20.50902131059029 181 184 193
-6.95245098709761 -5.155763111306961 20.515482607214317 84 78 78
-6.973127283704741 -5.154285582119129 20.508805312592184 183 186 195
-6.974527974609527 -5.156801717319164 20.51914384960174 180 183 192
-6.945620270577304 -5.15871878251208 20.528093380876747 197 198 202
-6.94184185808145 -5.158847669907297 20.528800358919355 197 196 201
-6.9966296031905175 -5.1626033602947174 20.542692722145777 121 126 132
-6.979398618181269 -5.155047953710786 20.51192783820843 179 182 191
-6.978647736969162 -5.154894823870448 20.51130744471472 178 180 192
-6.973818368758571 -5.154278763004787 20.508850340403498 182 185 194
-6.972895192948444 -5.156074048859664 20.51642265921451 181 184 193
-6.9603612306587985 -5.1570401052552 20.52070728036357 177 158 144
-6.949272811778309 -5.159969895804502 20.533393964157653 193 194 199
-6.942449731183081 -5.158974880806977 20.529494531247302 198 197 202
-6.942449585073602 -5.159110168697851 20.529966750333507 196 195 200
-7.009448888590591 -5.16206047002528 20.540339517888835 178 180 192
-6.949595650615643 -5.156669017477624 20.519754406325184 189 190 195
-6.965400441914802 -5.179156917192839 20.61280133234695 207 205 208
-7.010303810269405 -5.16228942965943 20.54136121892234 176 178 190
-7.009668644818492 -5.162636970035066 20.542819464237787 177 181 192
-7.0083694200478375 -5.162165083279506 20.540976073087595 177 181 192
-7.006538578742032 -5.161386361741588 20.53777846559667 176 180 191
-6.960061600052844 -5.157111279168976 20.521456409984275 172 146 129
-7.005480779200486 -5.160970751906205 20.536252113271996 176 180 189
-7.00454395723783 -5.161101618077675 20.536816196477808 177 179 191
-7.003084758585639 -5.160529911383243 20.53447108853924 178 180 192
-6.9470351117784475 -5.15718765724597 20.522321982417456 193 194 199
-7.002595187802487 -5.160552017627428 20.534751979359356 175 179 190
-7.002375974252768 -5.160841094280809 20.535958307656156 178 178 188
-6.958502798810036 -5.15453977883946 20.511067220923135 160 142 122
-6.946773348984556 -5.157434843933313 20.52353350620453 192 193 198
-6.948924348635537 -5.159575759482543 20.532476987424513 193 194 199
-6.9510198990660355 -5.166122841545396 20.55955716267391 200 199 204
-7.000241565111665 -5.159800715239444 20.53185798201099 177 179 191
-6.999790503728219 -5.159863671660364 20.532129360957445 177 180 189
-6.968974619118931 -5.154585225809768 20.51120965817505 183 186 195
-6.96505004381868 -5.178760498280007 20.611877645877072 205 203 206
-6.984608765463682 -5.157274062276201 20.522049368622536 101 110 115
-6.9550126300240676 -5.15800485217008 20.526082945441555 149 128 111
-6.942163826212679 -5.158479935190076 20.52851389295641 197 196 201
-6.969709854146007 -5.1563283893158 20.518706586249824 185 188 195
-6.957056782801596 -5.156478070548462 20.519958967919187 52 52 60
-6.962172885005649 -5.154314793331424 20.51094465585819 189 189 197
-6.964860159473452 -5.178465027395129 20.611460592237137 203 201 204
-6.9787150258159825 -5.154559027090406 20.511603017604084 179 181 193
-6.97803356318479 -5.154396263079473 20.510941033161693 180 183 192
-6.977109281200383 -5.154267277644677 20.510424678745675 182 184 196
-6.973849996435521 -5.1538125658824665 20.50869446116933 181 184 193
-6.969351359521956 -5.154180020411603 20.510318542042132 182 185 194
-6.962967783830428 -5.15415842188177 20.51045584721979 185 188 195
-6.963645783597935 -5.156380508320408 20.519678607342332 186 186 194
-6.952893062279299 -5.155418359744412 20.515999803313655 90 90 92
-6.952600669905061 -5.155580739262093 20.51677119622278 118 107 101
-6.951659052009451 -5.158419133321378 20.52850068649799 188 189 194
-7.010373533018337 -5.161863183408905 20.54119487902363 176 180 191
-6.993289861109717 -5.161920400269959 20.541799423320388 114 114 116
-6.979796733380391 -5.1548775259166435 20.513082118309132 174 177 186
-6.976034138360474 -5.156566678106255 20.520094651959713 185 188 197
-6.969625325948813 -5.156155338681521 20.518702478356513 185 188 195
-7.008909549185077 -5.161245536349364 20.538837287693262 178 182 193
-7.0081702749863695 -5.161607514725873 20.54035791130071 177 179 191
-6.959482134175813 -5.156607572337789 20.521068657695402 172 146 129
-6.9536492932556815 -5.156507525265678 20.520868061557078 117 97 86
-7.0067065985296155 -5.160989918643631 20.538000497453357 177 181 192
-7.004982491122797 -5.160972213611076 20.537963904160897 178 180 192
-6.99374400674262 -5.161370332403075 20.53995034352416 85 78 72
-6.991811328231697 -5.160606261985345 20.536815524001806 101 97 96
-6.963985368142126 -5.154271363247402 20.511348334257793 184 187 194
-6.949759394864591 -5.156092245606782 20.519493661914158 190 191 196
-6.959826751607873 -5.178715122492219 20.613324967922043 194 193 198
-7.007865461460574 -5.162210939556229 20.543139848872208 177 181 192
-7.003554045003396 -5.160349914394635 20.535586141362558 177 179 191
-6.976239307076279 -5.153946008990228 20.509820984952608 184 186 198
-6.958646234030279 -5.154572584881151 20.5129835551875 121 107 98
-7.003204951701346 -5.160488321399747 20.536257339231177 174 180 192
-7.0020928334104475 -5.1605076776133085 20.53645186755149 175 177 189
-6.975125225434747 -5.154054686294698 20.510474986149777 183 186 195
-6.976456818364698 -5.156445287873842 20.520384587484234 180 183 192
-6.962443717155416 -5.155029301415538 20.514979037893596 188 188 196
-6.9978295456408794 -5.1592477684092755 20.531484245151393 178 180 192
-6.997008055920811 -5.1591040932137995 20.530904595825746 179 181 193
-6.961826281326243 -5.153525217511241 20.50891776478243 188 188 196
-6.943319208832102 -5.15735751116717 20.52542710772374 194 195 200
-6.984546833740844 -5.156787663352145 20.521810802762978 77 77 79
-6.970090379696974 -5.156084482820898 20.51928794511119 185 188 195
-6.957419522806107 -5.155890185980879 20.519022514076724 58 60 73
-6.947524790582031 -5.156730674353713 20.522909304721903 193 194 199
-6.946968284000735 -5.156807542043213 20.523240813667773 192 193 198
-6.949397884224795 -5.159180414369438 20.53296330121309 194 195 200
-6.942883228740109 -5.157493445285826 20.52627015805048 195 194 200
-6.942569917663581 -5.157671901944703 20.526928645852767 194 193 198
-6.960112144594266 -5.178749511944312 20.61417855995473 190 189 194
-6.960952842304123 -5.1549753733064865 20.515231776192838 210 208 209
-6.956373141536059 -5.155988839043922 20.519633484891155 165 143 122
-6.946439398943789 -5.158120628170432 20.528889554252824 193 194 199
-6.945618928461968 -5.157976616099002 20.528308454345538 191 192 197
-6.94237732225252 -5.1579094869208495 20.528098951175185 195 194 199
-6.9426260125052695 -5.158389642028289 20.53008979172095 195 196 200
-6.986031392090231 -5.15739786377165 20.524582388059816 118 114 115
-6.966419448693878 -5.153142181605015 20.507671564753295 186 189 198
-6.967847940589537 -5.1535476136801694 20.509414648670045 185 184 192
-6.952869712314363 -5.1547027060858435 20.514808580844484 56 54 59
-6.953293563342195 -5.155293623135984 20.51716606720974 96 96 98
-6.952510997989025 -5.1556128744750005 20.518688497291745 166 147 130
-6.950552794108346 -5.1651429818821395 20.558531875355932 201 200 206
-6.992241266775467 -5.160782515564334 20.539055691897218 85 76 77
-6.978095854631024 -5.156938240722645 20.523467328350506 180 183 192
-6.963013957846288 -5.153990464203969 20.511806222443013 187 190 199
-6.964921924546636 -5.155920057289859 20.519697346480175 191 191 199
-6.94840704298818 -5.154713209080838 20.515304731494506 187 188 193
-7.006175458837867 -5.161131967597523 20.540207542540035 178 182 193
-6.976531686735296 -5.156200747270758 20.520703368305895 183 186 195
-6.975156446202997 -5.156269666065352 20.52092928848072 178 181 190
-6.961711763732712 -5.1543820376066956 20.513640460570276 191 191 199
-6.953449491088093 -5.154619205731827 20.514893931110677 151 129 115
-6.943223515959298 -5.157047432096033 20.52538907349538 192 193 198
-7.011011124250686 -5.161703221924084 20.54265725925009 175 182 192
-6.9687178469316065 -5.154271503818917 20.513118774003473 183 186 195
-6.963297630249793 -5.153601547963951 20.5105398533685 185 188 195
-6.944616851371523 -5.15732332273643 20.526684644150947 192 193 198
-6.943239782598932 -5.157256174492595 20.52643502774289 194 195 200
-7.010639251040578 -5.162226435594597 20.54501907491487 178 182 193
-6.957576951206834 -5.154090826299444 20.512875169546064 168 142 125
-6.956596807297728 -5.153577031080578 20.51085015500169 171 145 130
-6.950146159874176 -5.155362722920279 20.518502886004097 186 187 192
-6.949949902650062 -5.156553860075705 20.523369230561574 189 190 195
-6.9464805808041445 -5.156126334985178 20.521756355947037 190 191 196
-6.946555797396055 -5.156630279652069 20.52384993930492 193 194 199
-7.007680107047248 -5.16104154271989 20.540335023805422 177 181 192
-6.9960573731079645 -5.158393592813493 20.529665844135614 179 181 193
-7.009544114515797 -5.16190549495752 20.54397526294995 180 184 195
-7.006322364456714 -5.1605451761290215 20.53838887686723 178 180 192
-6.968451886277949 -5.153744326149347 20.511555941231723 182 186 195
-6.948501293458915 -5.15853860641903 20.532277734716676 193 194 199
-6.996834919082903 -5.16150479565661 20.54311981011296 139 128 122
-6.949318311718992 -5.158772299682315 20.53332016106143 192 193 198
-6.942332596742577 -5.1573614046227005 20.527962779872063 193 194 198
-6.978233717241612 -5.1536693364539055 20.511479083856997 179 181 193
-6.972308696879894 -5.156932944508984 20.525265604087785 188 188 198
-6.957985025758643 -5.153500133387368 20.511480505761853 116 103 95
-6.942288859828123 -5.156942133756137 20.52630878654059 194 195 200
-6.9473806657256025 -5.162024597720457 20.5474216422706 195 194 199
-6.961644205361481 -5.154246376036995 20.514502822226774 191 192 197
-6.953013071163734 -5.154142122408672 20.514434833871587 196 179 169
-6.94383626702941 -5.156804378451354 20.525971417285536 190 191 196
-7.004796618318394 -5.165015010447212 20.557987086736606 96 91 88
-6.9588961560248475 -5.155596704956136 20.520534843840863 178 162 147
-6.944722385432368 -5.157028305527609 20.52697176754183 193 194 199
-6.9434296798500394 -5.156692357433659 20.525602683114975 190 191 196
-6.943012139461432 -5.156749973410719 20.525851205777045 192 193 198
-6.964771042137325 -5.177636855822957 20.612138737245225 202 202 204
-6.941984554525278 -5.156967502741543 20.52704634635489 191 192 197
-6.965151673331109 -5.177537915461602 20.611898387421547 200 200 202
-6.959468875468856 -5.17779076143876 20.613252708966737 189 189 197
-6.949879951836479 -5.154951049455638 20.518400628878872 185 185 193
-6.95998955532528 -5.177808715433022 20.613404873795286 189 190 194
-7.001388753180242 -5.163539788657053 20.552462759956615 128 111 101
-6.968691528800614 -5.152962343888931 20.509636013412845 182 185 194
-6.955764139816141 -5.1526836643707465 20.508934954046502 156 130 113
-6.947050989859632 -5.155796716586161 20.522336270727443 190 191 196
-6.945830083353107 -5.157251282329982 20.52841054345865 190 191 196
-6.942916662503681 -5.156746536258707 20.526464506553726 192 193 198
-6.948238622095118 -5.158037018461213 20.531714261067663 192 193 198
